# .PCD v0.7 - Point Cloud Data file format
VERSION 0.7
FIELDS x y z
SIZE 4 4 4
TYPE F F F
COUNT 1 1 1
WIDTH 1522
HEIGHT 1
VIEWPOINT 0 0 0 1 0 0 0
POINTS 1522
DATA ascii
9.4188452 0.12692808 -0.092220381
9.3176231 0.11665374 -0.48523471
9.42027 0.11794299 -0.29128447
9.4140072 0.11426506 -0.092180587
214.24142 2.587821 2.7553878
9.312808 0.10146154 -0.48498458
9.4504347 0.1029658 -0.29215872
9.4041729 0.099763632 -0.092101015
9.2979803 0.086192466 -0.48423418
9.3756256 0.086914562 -0.28997311
9.3943233 0.084394857 -0.092021443
9.2980947 0.072864033 -0.48423418
9.3407564 0.073199429 -0.28895316
9.4044342 0.071003608 -0.092101015
9.2932014 0.058615275 -0.48398405
9.3458557 0.058948454 -0.28909886
9.3945274 0.05746074 -0.092021443
220.86748 1.3338854 2.8410032
9.3082657 0.043587908 -0.48473445
9.3359394 0.044610128 -0.28880745
9.3946085 0.042197853 -0.092021443
9.2983341 0.029323583 -0.48423418
9.3359966 0.030334951 -0.28880745
9.399662 0.02784754 -0.092061229
9.2783937 0.01507355 -0.48323369
9.3360319 0.0160597 -0.28880745
9.3946924 0.014365269 -0.092021443
9.4392004 0.014433544 0.10428988
9.2833996 -0.00088715862 -0.48348382
9.3260508 -0.0 -0.28851601
9.3797045 -0.0017927834 -0.091902077
9.409214 -0.0017984419 0.10390161
9.2883816 -0.015089829 -0.48373392
9.3510284 -0.01429829 -0.28924456
9.3796902 -0.016135043 -0.091902077
9.3592062 -0.015205263 0.10325447
9.2983341 -0.029323583 -0.48423418
9.3609943 -0.027732616 -0.28953597
9.3746576 -0.029565057 -0.091862291
9.3491726 -0.029484428 0.10312505
9.2982702 -0.045318156 -0.48423418
9.3659306 -0.043858808 -0.28968167
9.3645926 -0.04564245 -0.091782719
9.3541117 -0.044697244 0.10318977
9.2832088 -0.059439216 -0.48348382
9.3608541 -0.058148742 -0.28953597
9.3745241 -0.059129864 -0.090966374
9.3190355 -0.058778748 0.10273677
9.27812 -0.072706997 -0.48323369
9.3557634 -0.071529113 -0.28939027
9.3744297 -0.072568223 -0.090966374
9.3039503 -0.071131706 0.10254263
9.2729874 -0.088618748 -0.48298356
9.3256397 -0.087340988 -0.28851601
9.3692904 -0.088646598 -0.090927064
9.3288107 -0.087370776 0.1028662
9.2878208 -0.10296381 -0.48373392
9.3055048 -0.10138172 -0.2879332
9.3541555 -0.10191347 -0.090809144
9.3236761 -0.1006892 0.10280149
9.2676897 -0.11602657 -0.48273343
9.3053608 -0.11383151 -0.2879332
9.3589983 -0.11538433 -0.090848453
9.3335199 -0.1141771 0.10293091
9.2624826 -0.13189679 -0.4824833
9.3201418 -0.13004796 -0.28837031
9.3737831 -0.13169485 -0.090966374
9.3383207 -0.12940983 0.10299563
9.2672348 -0.1479093 -0.48273343
9.3049126 -0.14584427 -0.2879332
9.3735561 -0.14692368 -0.090966374
9.378089 -0.14520204 0.10351333
9.2620039 -0.16199125 -0.4824833
9.2946835 -0.15989915 -0.28764179
9.3733206 -0.16125634 -0.090966374
9.3778553 -0.15954165 0.10351333
9.2617779 -0.1743826 -0.4824833
9.3044548 -0.17252026 -0.2879332
9.3780937 -0.17389008 -0.091005683
9.4476156 -0.17337687 0.10441931
9.2664557 -0.19041681 -0.48273343
9.3091402 -0.18862678 -0.2880789
9.3777981 -0.18912588 -0.091005683
105.58496 -2.1153538 1.3490447
9.2661333 -0.20547064 -0.48273343
9.3238297 -0.20318829 -0.28851601
9.3774776 -0.20436117 -0.091005683
141.05037 -3.0425076 1.8082482
9.2758341 -0.21810301 -0.48323369
9.3335419 -0.21589448 -0.28880745
9.3821936 -0.21702348 -0.091044992
140.66629 -3.2230814 1.8033299
9.2854729 -0.23431239 -0.48284629
9.3381767 -0.23207474 -0.28806046
9.381834 -0.23226607 -0.090148121
140.66068 -3.4522893 1.8168168
9.3100624 -0.24918 -0.48409453
9.3478022 -0.2466175 -0.28835091
9.3814669 -0.24661133 -0.090148121
9.3196268 -0.26458919 -0.48459381
9.4323187 -0.26419026 -0.29081979
9.3910484 -0.26213241 -0.090225779
9.3091736 -0.28031859 -0.48409453
9.4168882 -0.27906874 -0.29038411
9.4006033 -0.27768543 -0.090303436
9.3136959 -0.2956008 -0.48434418
9.4014349 -0.29389766 -0.28994843
9.4001389 -0.29295775 -0.090303436
9.3382607 -0.30978343 -0.48469949
9.3960333 -0.30721146 -0.28890476
9.429698 -0.30741355 -0.089634739
9.3377743 -0.32406178 -0.48469949
9.3955517 -0.32157841 -0.28890476
9.4392405 -0.32127222 -0.089711435
115.54422 -3.8998058 1.5006975
9.3472147 -0.33959544 -0.48519784
9.4099989 -0.33738142 -0.28933901
9.4437008 -0.33678624 -0.089749791
115.21793 -4.0767541 1.4964945
24.372143 -0.92461866 -1.2354445
9.414464 -0.35195708 -0.28948376
115.00211 -4.234674 1.4937363
24.395645 -0.96294397 -1.2366904
9.413949 -0.36545256 -0.28948376
24.394043 -1.0026551 -1.2366904
9.418334 -0.38094917 -0.28962851
60.354053 -2.4361751 -0.48056591
24.40756 -1.0406718 -1.2350986
9.4377394 -0.39619255 -0.28930476
60.065548 -2.516773 -0.47261912
24.411131 -1.0736109 -1.2353473
9.4471855 -0.40925354 -0.28959331
59.892525 -2.5842652 -0.47133154
24.409349 -1.1133473 -1.2353473
36.512718 -1.6450499 -1.0716813
59.623466 -2.6699665 -0.47504362
24.422356 -1.1561269 -1.2360934
36.49984 -1.7075392 -1.0713927
59.32909 -2.759325 -0.47281939
24.430529 -1.1940311 -1.2365907
36.512325 -1.7607077 -1.0718255
59.110313 -2.8342986 -0.47117037
96.468292 -4.5708952 1.2599418
24.438761 -1.231969 -1.234745
36.519665 -1.817171 -1.0686113
58.596577 -2.8997061 -0.46163687
24.436598 -1.2740901 -1.234745
36.551414 -1.8819399 -1.0696177
57.957623 -2.9627233 -0.4568274
24.449701 -1.3099905 -1.2354897
36.553661 -1.934724 -1.0697616
57.349152 -3.014256 -0.45224518
24.447662 -1.3474483 -1.2354897
36.56562 -1.9915644 -1.0701929
57.683956 -3.1205542 -0.45482031
24.470495 -1.386317 -1.2367307
36.567707 -2.0443838 -1.0703367
57.200161 -3.1768327 -0.45118481
24.478153 -1.4290822 -1.2348793
36.639072 -2.111758 -1.068978
92.543449 -5.2386618 1.2263101
24.495731 -1.4701253 -1.2358701
36.615623 -2.1702387 -1.0684047
56.809891 -3.3463001 -0.44285357
94.471329 -5.5022635 1.2523487
24.488464 -1.5073464 -1.2356224
36.617241 -2.2266614 -1.0685481
56.42572 -3.405051 -0.44001189
24.486122 -1.5448635 -1.2356224
36.653687 -2.2852728 -1.0696945
56.719849 -3.5100961 -0.44225532
24.498674 -1.5833442 -1.2363657
36.665104 -2.3424067 -1.0701245
56.439957 -3.579638 -0.44019884
115.41809 -7.2333922 1.5344105
24.496021 -1.6255758 -1.2340147
36.641388 -2.4008124 -1.0660336
56.523895 -3.6774218 -0.43544412
92.554741 -5.960463 1.2359375
24.503304 -1.666128 -1.2345092
36.55265 -2.4547822 -1.0636054
56.338234 -3.7575088 -0.43411532
24.525627 -1.7054018 -1.2357455
36.618652 -2.515604 -1.065605
55.958282 -3.8183384 -0.43134701
24.53771 -1.7487468 -1.2341317
36.584442 -2.5766408 -1.0612348
55.882195 -3.9046092 -0.42546242
24.529675 -1.7906737 -1.2338849
36.435375 -2.6292789 -1.0571065
55.296871 -3.9595432 -0.42123634
24.542189 -1.8246685 -1.2346252
36.222466 -2.662739 -1.0511277
55.566158 -4.0484152 -0.42324007
24.539118 -1.8669759 -1.2322687
35.605156 -2.6756258 -1.0301979
55.085457 -4.1089015 -0.41448602
24.570896 -1.9096317 -1.2339927
35.3466 -2.7140734 -1.0229623
55.108601 -4.2009096 -0.41470173
24.582872 -1.94846 -1.2347316
34.814228 -2.7268407 -1.0079236
24.589428 -1.9916359 -1.2352242
34.261448 -2.7429519 -0.9923175
54.845821 -4.3553472 -0.41290411
24.606756 -2.0262494 -1.2338451
34.088455 -2.7751031 -0.98421764
54.660557 -4.4144249 -0.40635511
24.633081 -2.071173 -1.23532
33.650288 -2.7978139 -0.97191626
54.43404 -4.4853826 -0.40479431
90.047363 -7.3433552 1.2294717
24.60957 -2.111918 -1.2343367
33.307037 -2.823869 -0.96230143
54.067493 -4.5490642 -0.40224025
79.786682 -6.6371932 1.0874833
24.631496 -2.1494472 -1.2331983
32.94949 -2.8412158 -0.94909447
54.026062 -4.6237879 -0.3967962
103.45992 -8.7570248 1.4255891
24.612827 -2.1905699 -1.2324623
32.625896 -2.8699665 -0.94007587
53.963665 -4.707006 -0.39641127
24.634306 -2.2305312 -1.233689
32.447224 -2.9043546 -0.93514383
53.831875 -4.7786746 -0.39553642
83.670433 -7.3400359 1.1497883
24.650864 -2.2701159 -1.2322998
32.193947 -2.9314046 -0.92500162
53.29216 -4.8079481 -0.38666487
80.322571 -7.1703696 1.1109476
24.676743 -2.3154039 -1.2337689
52.925308 -4.8668737 -0.38417986
24.687849 -2.356997 -1.2345035
32.174267 -3.0352943 -0.9247207
35.365383 -3.2716925 0.4792577
24.704086 -2.3967502 -1.2354831
32.124798 -3.0803018 -0.92345679
35.410416 -3.3271861 0.47995758
24.715406 -2.43608 -1.2338393
31.896271 -3.1077089 -0.91406751
35.48983 -3.389538 0.48456249
24.711641 -2.4739439 -1.2338393
31.851675 -3.1526453 -0.91294783
24.717272 -2.5175474 -1.234328
32.09483 -3.2326231 -0.91994572
48.587425 -4.8483052 -0.34968099
63.937576 -6.3129072 0.88762176
24.743057 -2.5608809 -1.2334124
31.492962 -3.2237554 -0.90011853
48.50985 -4.9203753 -0.34453267
64.017273 -6.4199076 0.89505565
24.754498 -2.5956137 -1.2341441
32.368534 -3.3573358 -0.92480618
47.518417 -4.8841581 -0.33788866
63.92902 -6.497695 0.89392054
24.745014 -2.6377475 -1.2339002
32.551895 -3.4299586 -0.93010634
46.858955 -4.8934774 -0.33349288
24.770845 -2.678895 -1.2329777
32.27335 -3.4506004 -0.91932619
46.548134 -4.933146 -0.3269611
24.77141 -2.7197611 -1.2332212
32.376999 -3.5150266 -0.92238414
46.888012 -5.0464334 -0.32927644
79.652206 -8.4746399 1.1187428
24.797104 -2.7610435 -1.2322924
32.27726 -3.5542476 -0.91663277
43.987976 -4.79807 -0.30578664
79.678772 -8.6010513 1.126991
24.812153 -2.8060281 -1.2332642
32.320747 -3.6154537 -0.91801798
43.915028 -4.8667579 -0.30536288
24.802975 -2.8434839 -1.2306306
31.76897 -3.6029792 -0.89971828
43.842949 -4.9268112 -0.30071214
24.654997 -2.862385 -1.2235992
32.206028 -3.6963449 -0.91200387
24.416914 -2.8773727 -1.2122033
32.164852 -3.7478135 -0.91103762
41.13063 -4.7495422 -0.28327233
24.19908 -2.891619 -1.1994436
32.188564 -3.8037159 -0.9087612
41.589653 -4.8712401 -0.28227961
89.050217 -10.313022 1.2799507
23.916697 -2.8973312 -1.1858922
32.370899 -3.8787413 -0.91398859
41.894932 -4.9721355 -0.28427282
23.684319 -2.9059708 -1.1724761
32.394768 -3.9319742 -0.91168821
41.480221 -4.9873748 -0.27767584
23.417166 -2.9095747 -1.1596761
32.200191 -3.9584212 -0.90647906
41.189621 -5.0164733 -0.27589977
62.903328 -7.5772772 0.90543675
23.189808 -2.9173725 -1.1465702
32.23423 -4.0096321 -0.90446436
39.897152 -4.9171443 -0.26397848
63.150337 -7.6991539 0.91532201
23.006395 -2.9345579 -1.1378932
32.138004 -4.0539322 -0.90200549
40.399616 -5.049859 -0.26713848
62.690411 -7.752821 0.90872133
22.917383 -2.9611087 -1.1337957
32.066902 -4.0980139 -0.90022963
40.044113 -5.071641 -0.2649909
22.873304 -2.9910407 -1.1296587
31.852478 -4.1202097 -0.89141589
38.40519 -4.9199977 -0.25118807
22.794426 -3.0162387 -1.1260505
31.613197 -4.1384988 -0.88501805
38.531471 -4.9962306 -0.25200349
22.750277 -3.0458605 -1.1219283
31.725811 -4.2027206 -0.88521969
37.705826 -4.9478679 -0.24337734
22.631752 -3.0652721 -1.1164067
31.724279 -4.2520008 -0.88535535
62.109249 -8.158761 0.91302639
22.488291 -3.0831013 -1.1075113
31.420637 -4.2602944 -0.87417954
62.17091 -8.263854 0.92015105
22.43347 -3.1149757 -1.1051154
31.403336 -4.3130984 -0.87390918
62.077286 -8.3603983 0.91895461
21.894344 -3.0763485 -1.0771224
31.574562 -4.3890347 -0.87572169
35.959541 -4.9535103 -0.22613941
44.399651 -6.0477843 0.65658671
22.344797 -3.1724613 -1.099121
31.687006 -4.451097 -0.87895417
35.63097 -4.956913 -0.22426988
44.564255 -6.135468 0.65922076
22.463491 -3.2244513 -1.1050988
31.640553 -4.4940248 -0.87787664
35.786713 -5.034523 -0.22521903
21.786154 -3.1632953 -1.0704716
31.534323 -4.5313191 -0.87213141
35.946758 -5.1167707 -0.22619694
21.726921 -3.1886771 -1.0678467
31.418875 -4.5607986 -0.8722198
36.518383 -5.2517557 -0.22956209
62.022747 -8.8255424 0.93111098
21.588106 -3.2062926 -1.0593139
31.396202 -4.6127901 -0.86877626
35.58902 -5.180645 -0.2207672
62.467525 -8.9988241 0.9442026
21.568966 -3.2330019 -1.0585994
31.083454 -4.6093874 -0.86045539
34.603073 -5.0810142 -0.21516724
62.34742 -9.060812 0.9425258
21.593393 -3.2726142 -1.0579373
31.199551 -4.6785541 -0.86078876
62.540215 -9.1929045 0.95178443
21.692753 -3.3174458 -1.0608274
31.460182 -4.7608209 -0.8649624
36.0564 -5.404036 -0.21658191
62.454437 -9.2597904 0.95668435
21.662319 -3.3510022 -1.0596414
35.553207 -5.3877707 -0.21384951
63.304478 -9.4913054 0.97019005
21.666794 -3.387816 -1.0580161
31.479153 -4.8686132 -0.86284411
34.664692 -5.3107729 -0.2056265
21.701036 -3.4272437 -1.0599098
31.175354 -4.8705158 -0.85487789
34.58239 -5.3524146 -0.20522383
61.115498 -9.3546667 0.93646443
21.700783 -3.4612858 -1.0580426
30.842081 -4.8668308 -0.84312439
34.633953 -5.4113722 -0.20218803
60.51305 -9.3573866 0.93314826
20.832579 -3.3553479 -1.0167005
31.288677 -4.9865303 -0.85529512
60.820602 -9.494503 0.93819582
31.334867 -5.0462332 -0.85371023
60.976868 -9.6266823 0.94682944
31.283257 -5.0840383 -0.8494882
32.495987 -5.2302079 -0.18459821
60.934181 -9.7037449 0.95227337
22.062588 -3.6643629 -1.0721867
31.072224 -5.1047125 -0.84410357
31.766413 -5.1688805 -0.18088886
21.436766 -3.5919232 -1.04046
29.669491 -4.9178286 -0.80405617
31.700258 -5.2017522 -0.17750695
61.44191 -9.9779272 0.96680725
21.509672 -3.6401606 -1.0442169
29.73045 -4.9776964 -0.80588812
31.834782 -5.2770967 -0.17822984
61.377197 -10.064027 0.96601635
22.158558 -3.7872396 -1.0732934
29.727779 -5.024097 -0.80313128
32.443069 -5.4291277 -0.17819487
61.469128 -10.181967 0.97372705
22.29471 -3.8501019 -1.080089
29.783113 -5.0862889 -0.80482614
32.86253 -5.5576534 -0.18351437
22.38311 -3.8962955 -1.0823658
29.692598 -5.1118021 -0.79972398
32.623405 -5.5621881 -0.17917277
21.968555 -3.8608894 -1.0608208
29.807409 -5.1815758 -0.80007356
31.171125 -5.3635249 -0.16898002
21.922522 -3.8917506 -1.0589539
29.271679 -5.1403599 -0.78622615
32.023857 -5.5672607 -0.17317449
21.827757 -3.9115655 -1.0526299
28.889797 -5.1188803 -0.77358049
32.699818 -5.7365308 -0.17332599
21.753302 -3.9304595 -1.0493696
28.631472 -5.1154981 -0.76700479
21.810457 -3.9796302 -1.0502744
28.58824 -5.1586418 -0.76331991
54.285603 -9.5965271 0.87530923
21.917398 -4.0338755 -1.0534861
28.673794 -5.219481 -0.7629692
54.340569 -9.6868162 0.88173246
21.743452 -4.0405741 -1.0456004
28.674576 -5.2707138 -0.76322514
30.965824 -5.6340714 -0.15919285
54.230286 -9.7636871 0.88018417
21.727507 -4.0720525 -1.04302
28.66205 -5.3109908 -0.76309717
53.911133 -9.7862167 0.88038218
21.716721 -4.1023235 -1.0427885
28.723167 -5.3650227 -0.76488882
31.770552 -5.8749995 -0.15986063
54.005188 -9.8835039 0.88218546
21.837261 -4.1641183 -1.0466777
28.713938 -5.4145446 -0.76209027
31.583441 -5.8967032 -0.15598927
53.900436 -9.9550943 0.88596225
21.752472 -4.1824741 -1.0408614
28.415966 -5.4034061 -0.7517975
31.91889 -6.006866 -0.1543882
54.05703 -10.069763 0.89411682
21.824482 -4.2310209 -1.0445492
21.695112 -4.2425594 -1.0366703
54.025799 -10.235453 0.89938581
21.704195 -4.2745538 -1.0352423
58.432507 -11.146214 0.98015189
21.515944 -4.2738204 -1.0267495
28.530085 -5.6037159 -0.75003862
58.61063 -11.279194 0.98350734
21.660858 -4.3393068 -1.0317501
29.050499 -5.7551837 -0.76081675
31.189941 -6.1173911 -0.14232305
58.583351 -11.367119 0.98905808
21.506983 -4.3448639 -1.0227774
28.090288 -5.612308 -0.73621041
31.258419 -6.1837115 -0.13958539
58.912979 -11.53073 1.0008006
21.519964 -4.381815 -1.0215892
27.670124 -5.5723805 -0.7229985
30.749365 -6.1288338 -0.13462634
59.146381 -11.664737 1.0109046
21.649357 -4.447072 -1.0279759
31.09166 -6.2528825 -0.13597241
59.268353 -11.795049 1.013379
21.53586 -4.4538217 -1.0208521
25.757893 -5.2690573 -0.67225158
30.897038 -6.2568254 -0.13224247
59.322128 -11.882606 1.0203712
21.377094 -4.4572387 -1.011705
25.886909 -5.3368206 -0.67319638
30.627769 -6.2511239 -0.13127702
21.872795 -4.6000924 -1.0351007
25.740643 -5.3529077 -0.66973376
30.117437 -6.2009721 -0.12941898
21.631277 -4.5838456 -1.0220808
25.991735 -5.4467492 -0.67374474
30.391838 -6.3060937 -0.12750249
55.1362 -11.31875 0.95343292
21.492434 -4.5887995 -1.0138566
25.792686 -5.4462609 -0.66641599
29.702478 -6.2074418 -0.12213071
55.061031 -11.385814 0.95778525
21.513779 -4.6321473 -1.0152137
25.846802 -5.504262 -0.66801113
30.205408 -6.3670273 -0.12394272
21.54579 -4.6736002 -1.0149124
25.862822 -5.5491195 -0.66609144
21.582603 -4.7162294 -1.0148286
21.643269 -4.7664309 -1.0158597
25.513699 -5.5559697 -0.65277886
56.035007 -11.951755 0.99282324
21.445765 -4.7573357 -1.0070946
26.291174 -5.7676883 -0.67230308
32.022415 -6.9557281 -0.1210838
55.874866 -12.007176 0.99026543
21.589643 -4.8240128 -1.0119437
25.867512 -5.7162008 -0.65945822
55.236923 -11.953102 0.98447967
21.566761 -4.8579354 -1.0091542
21.666443 -4.9153104 -1.0140775
31.755127 -7.0538592 -0.11409271
20.739147 -4.7359791 -0.96974444
31.842546 -7.1213226 -0.11126444
53.619205 -11.861277 0.96662682
21.577957 -4.9669528 -1.0064806
53.570431 -11.942052 0.97134829
21.526613 -4.9898582 -1.0023594
53.660419 -12.043113 0.97860062
21.533525 -5.0262384 -1.0030264
31.789957 -7.2631917 -0.10495981
53.554111 -12.105516 0.9769699
21.481153 -5.0530539 -0.99891233
31.787128 -7.3202376 -0.10186214
50.244129 -11.442959 0.92075533
21.449654 -5.0781579 -0.99569249
23.321781 -5.4607134 -0.58433563
31.990881 -7.4156256 -0.09928602
50.232403 -11.516258 0.92578459
21.349615 -5.0889955 -0.98938453
32.613155 -7.6094046 -0.097698353
50.292522 -11.611238 0.93219525
21.452595 -5.152669 -0.99235314
32.502644 -7.642715 -0.094260328
21.17765 -5.1208673 -0.98022908
22.96541 -5.4909577 -0.5717954
41.49041 -9.7119274 0.77052522
21.174713 -5.1545057 -0.97836292
23.073639 -5.5542569 -0.57232982
41.665222 -9.8202724 0.77413321
21.083406 -5.1707559 -0.97254515
21.060991 -5.199471 -0.96980971
30.073118 -7.2687912 -0.079732604
42.358227 -10.125204 0.79626298
21.03895 -5.2260928 -0.96915269
42.197815 -10.150966 0.79345882
21.170504 -5.2975745 -0.9734143
21.64566 -5.3550148 -0.53249609
41.802189 -10.127784 0.79028893
20.243143 -5.0940323 -0.92989641
21.653053 -5.3876605 -0.5307048
41.866188 -10.202775 0.79592067
20.331242 -5.1535101 -0.93224925
21.604984 -5.4152451 -0.52765566
32.309395 -8.0165348 -0.074897699
42.106731 -10.334124 0.8050794
20.3466 -5.194746 -0.93132657
21.532652 -5.4365525 -0.52404618
32.154858 -8.0370388 -0.071472608
42.177109 -10.424275 0.8109504
19.995623 -5.1356058 -0.91591346
32.152962 -8.0856705 -0.071488909
41.482918 -10.315864 0.79759598
19.910431 -5.1462193 -0.91047126
19.647699 -5.020052 -0.47825491
32.272175 -8.165 -0.068520181
39.187813 -9.8085213 0.75663346
20.926359 -5.4476967 -0.95432162
19.648729 -5.0564051 -0.47653875
32.287109 -8.2280455 -0.065374568
38.85178 -9.7916212 0.75414473
20.284584 -5.3156552 -0.92400122
32.225231 -8.2681732 -0.062115818
19.992039 -5.2695756 -0.90929848
19.836351 -5.1696143 -0.47734472
31.855862 -8.2188654 -0.058467824
38.41066 -9.8017807 0.75355089
19.89127 -5.279655 -0.90323997
31.769049 -8.2548981 -0.055230167
19.7432 -5.2726841 -0.8970139
19.684624 -5.1964874 -0.47226846
31.833742 -8.3238306 -0.055322208
37.20335 -9.6188364 0.73358691
19.986006 -5.3704433 -0.90619648
24.782776 -6.5850301 -0.58735585
31.913612 -8.3937464 -0.052270547
37.057861 -9.6418171 0.73461509
19.962845 -5.3990655 -0.90357399
24.752747 -6.6202064 -0.58445919
31.812895 -8.4226465 -0.0490233
37.183197 -9.7353344 0.74114704
19.917101 -5.4153376 -0.8998881
25.269974 -6.7950282 -0.59647596
31.777403 -8.4588633 -0.048999332
36.208118 -9.531745 0.72149706
19.48385 -5.3334398 -0.8791877
25.205193 -6.824204 -0.59276253
31.792553 -8.5183668 -0.045875285
36.293938 -9.617589 0.72716761
18.936369 -5.2145386 -0.85347652
25.069357 -6.8286328 -0.58742034
31.721525 -8.5514498 -0.042676456
36.139 -9.6358099 0.72787321
18.933239 -5.2448907 -0.85180807
20.571405 -5.633719 -0.48363164
31.843479 -8.6367331 -0.039623357
36.313335 -9.7382488 0.73536336
18.708149 -5.2152386 -0.84227628
20.528465 -5.6578813 -0.48286998
31.8109 -8.6802559 -0.039609935
36.403587 -9.8260527 0.73756737
18.300528 -5.1335387 -0.82287592
20.543341 -5.6979847 -0.48137286
31.979918 -8.782402 -0.03656067
36.258152 -9.8464193 0.73846173
18.369123 -5.1850772 -0.82443017
25.08839 -7.0044737 -0.58135748
32.312531 -8.9304485 -0.033556465
36.286331 -9.9138279 0.7429713
18.72262 -5.3121281 -0.83838159
24.944265 -7.0002546 -0.57585657
31.742565 -8.815341 -0.030122744
36.316307 -9.97439 0.74748957
18.055496 -5.1561785 -0.80776185
24.94182 -7.0459757 -0.57358921
31.717676 -8.8673601 -0.026964182
35.726585 -9.8748922 0.73894781
18.114849 -5.2031813 -0.8088963
24.950945 -7.0872784 -0.57153279
32.147697 -9.0375204 -0.023897659
35.52832 -9.8786907 0.73860073
18.159706 -5.246213 -0.80939054
32.21558 -9.1099272 -0.02070698
35.6488 -9.9674311 0.74501902
18.424604 -5.3553734 -0.81946355
29.81554 -8.4830694 -0.0175
35.603565 -10.017321 0.74794388
17.908237 -5.2348018 -0.79558027
31.644314 -9.0530863 -0.01434719
35.872829 -10.148801 0.75762403
18.043005 -5.3080306 -0.80001944
17.763653 -5.1666341 -0.40610841
30.855133 -8.8846836 -0.011348736
36.172485 -10.301052 0.76809216
17.925766 -5.2995987 -0.79345739
17.75194 -5.1890373 -0.40423352
31.318632 -9.0637798 -0.0081307329
36.02018 -10.306161 0.76865101
18.031569 -5.3647385 -0.79662514
22.121519 -6.507575 -0.49699175
31.097404 -9.0546045 -0.005090096
36.34811 -10.467916 0.77983284
18.363684 -5.4924335 -0.80945528
22.040283 -6.5180597 -0.49323791
29.395361 -8.6043806 -0.0028313089
36.127563 -10.456844 0.77529836
17.74679 -5.3409595 -0.78151023
21.99551 -6.5460529 -0.49031907
28.550789 -8.4103832 -0.00039515717
35.706268 -10.40157 0.77000314
17.752474 -5.3741984 -0.78035152
18.168493 -5.4377484 -0.40674913
28.513884 -8.4470148 0.0024388719
35.771744 -10.480174 0.77537495
17.911982 -5.4506607 -0.78753048
17.859116 -5.3729558 -0.40031692
28.9042 -8.6079607 0.0027207406
35.747047 -10.528738 0.7751621
17.750822 -5.4312601 -0.77918988
17.91308 -5.419157 -0.39985269
29.178326 -8.7383919 0.005839515
29.247095 -8.6583576 0.63410842
18.185474 -5.5987692 -0.79639924
18.056747 -5.4966764 -0.40129763
28.584808 -8.6112089 0.0082349209
36.326576 -10.824505 0.79604554
18.688066 -5.7831554 -0.81637102
18.025492 -5.5135565 -0.3989875
23.811338 -7.2090106 0.0063246358
36.374191 -10.891846 0.80107892
18.244665 -5.678277 -0.79600734
17.920969 -5.5134454 -0.39517942
36.203159 -10.904875 0.80124998
17.878569 -5.532248 -0.39268661
23.740602 -7.2695575 0.011032037
18.526932 -5.8305435 -0.80508995
17.855778 -5.5551701 -0.3905974
28.703432 -8.8392782 0.019897005
28.927748 -8.8076477 0.64292389
18.608669 -5.8876553 -0.80332696
17.856878 -5.5855289 -0.38542271
28.165321 -8.7177191 0.027683385
29.526644 -9.0365753 0.66578513
18.546759 -5.9012628 -0.79925495
21.519096 -6.7714596 -0.4585571
28.771637 -8.956954 0.03156675
29.416271 -9.0551729 0.66651851
17.695086 -5.6615686 -0.7620194
21.327629 -6.7470574 -0.45271757
28.780849 -9.0112619 0.034496173
28.762459 -8.901967 0.65450078
17.662127 -5.6827116 -0.75924402
21.516697 -6.8455091 -0.45462224
27.9849 -8.8089075 0.035891131
28.776485 -8.9576864 0.65805739
17.695202 -5.7270422 -0.75747752
20.676592 -6.6171255 -0.43370056
27.840958 -8.8163385 0.041239444
28.890574 -9.0448685 0.66398519
17.847969 -5.8067894 -0.76242667
28.546745 -9.0882435 0.045629017
28.875597 -9.2418146 0.049292341
29.091297 -9.2057838 0.67523694
18.485661 -6.0753465 -0.78601509
28.725142 -9.2360983 0.048972603
18.503675 -6.1166325 -0.78533119
28.547421 -9.2332373 0.05147155
18.471226 -6.1353302 -0.78248543
28.891603 -9.3874941 0.055244178
29.173948 -9.3735847 0.68699521
17.575243 -5.8690186 -0.74405754
28.458059 -9.2977419 0.057057146
29.207033 -9.4336348 0.69108528
17.845118 -5.9915962 -0.75379187
28.628099 -9.4049797 0.060429491
29.381702 -9.5429773 0.69866478
17.74547 -5.9902396 -0.74829298
25.143339 -8.3016682 0.053504046
18.047953 -6.1252627 -0.75931042
18.283916 -6.1333299 -0.3726674
25.333792 -8.4103985 0.056637678
28.705402 -9.4234877 0.68867654
18.033285 -6.153028 -0.75729221
18.349709 -6.188684 -0.37227836
24.651398 -8.2281733 0.057166412
17.366505 -5.9567151 -0.72862202
18.585777 -6.3021445 -0.37513545
25.269125 -8.4776726 0.061631721
28.466654 -9.4448042 0.68640304
17.900517 -6.1708641 -0.74902028
18.490959 -6.3015432 -0.37163457
28.618931 -9.5410528 0.69340253
18.589748 -6.4407444 -0.77376682
18.869087 -6.4628978 -0.3752051
25.593353 -8.6739445 0.070495695
28.632565 -9.594389 0.69989437
15.323692 -5.3369217 -0.63994038
24.808651 -8.5456753 -0.48494199
25.763729 -8.7785521 0.073738128
15.274136 -5.3425918 -0.63667071
24.825542 -8.5887585 -0.48295823
25.137009 -8.6023979 0.074101485
15.316784 -5.3871775 -0.6372149
24.65493 -8.5772848 -0.47754765
24.777031 -8.5268068 0.075351186
28.356062 -9.6468678 0.70267564
16.886909 -5.9677682 -0.69923884
18.225214 -6.3670602 -0.35640025
24.888407 -8.6025267 0.078334279
28.181299 -9.6325426 0.70143753
17.164364 -6.0974393 -0.70907199
18.252569 -6.4099889 -0.35524619
24.581558 -8.5411711 0.07969711
27.87809 -9.5765266 0.6968925
17.35676 -6.1977401 -0.7154479
18.897274 -6.6713467 -0.36538741
24.619513 -8.599328 0.082400255
27.635622 -9.5434761 0.6938718
18.006805 -6.4574895 -0.74005222
24.688974 -8.6581287 0.082726225
30.83473 -10.692532 0.7766602
17.680843 -6.3748121 -0.7256338
24.541973 -8.6540585 0.084681548
30.901104 -10.775298 0.78198624
17.107492 -6.1973701 -0.70134783
24.415567 -8.6515236 0.086690567
31.041161 -10.874241 0.78917021
6.1564732 8.7773457 0.58618987
6.4934349 9.0663109 0.8233996
55.079155 80.019943 3.6549094
6.3089514 8.9391565 0.5924499
6.2823787 8.7152224 0.78616738
6.6786494 9.0792389 1.0354879
56.93335 82.191132 3.7049313
58.107357 82.208572 5.6067834
60.978569 84.472931 7.771543
61.640507 83.667412 9.6981649
57.26429 82.146393 3.6529329
58.28677 81.944649 5.5425243
60.335144 83.059738 7.6081781
61.970158 83.610367 9.6518183
58.843956 82.176636 5.5125933
58.108715 82.260696 3.5678489
59.368725 82.374718 5.4893718
61.593723 83.724892 7.593112
58.202805 81.859779 3.5002759
60.845818 83.898407 5.5436654
62.175804 83.975494 7.5828657
59.983936 83.820442 3.533263
60.916473 83.455864 5.4670691
62.755344 84.23391 7.5623884
63.605778 83.702293 9.5365028
61.513309 83.733208 5.4577579
60.686169 83.695038 3.4347832
61.741196 83.488594 5.3946118
63.708244 84.427193 7.5027351
64.255386 83.505608 9.4563408
60.015888 82.287659 3.3346179
62.476006 84.01001 5.3915076
63.902279 84.196487 7.4572396
65.852066 85.091148 9.6050692
61.431793 83.706276 3.3401921
61.65659 82.394966 5.2398624
86.764847 113.65472 10.013682
66.24617 85.093796 9.5747795
60.747429 82.276031 3.2406321
62.243095 82.682259 5.2198873
64.208076 83.596512 7.3249183
66.209076 84.55999 9.4834099
62.40324 83.96254 3.2551601
63.683018 84.057983 5.2586641
64.527382 83.480949 7.2813044
66.527031 84.431282 9.4295263
62.654728 83.746277 3.1942234
64.083374 84.032951 5.2190204
64.813316 83.321442 7.2237015
66.918495 84.394394 9.396306
61.813541 82.111351 3.0891163
66.762482 85.304039 7.3611765
93.35202 117.05531 12.999009
63.917747 84.351166 3.1207891
64.317314 83.275032 5.0825377
66.301346 84.181084 7.2196283
67.193916 83.714806 9.2611752
64.252869 84.305611 3.0748892
64.600311 83.179047 5.0366683
66.905373 84.464127 7.2184429
64.249687 83.750412 3.0011699
62.088249 79.422852 4.7619047
67.629982 84.843201 7.2060032
69.176323 85.160728 9.3602552
64.913307 84.080414 2.9693203
64.98571 83.609314 2.8991168
60.415379 76.296967 4.4932547
60.69558 75.17363 6.3119373
60.676903 76.161163 4.467804
60.924885 75.015274 6.2947197
62.633545 75.700615 8.2564745
66.432373 84.397469 2.8481462
61.728199 76.980385 4.4707537
61.422173 75.155502 6.2663007
62.728302 75.343338 8.1816158
61.728947 77.910675 2.5862741
60.823776 75.376839 4.3507633
61.64254 74.940094 6.2178555
62.986763 75.183601 8.1473465
60.658237 76.062866 2.4747684
61.545177 75.779434 4.3291521
59.142239 71.450836 5.8888116
62.902283 74.616432 8.0501223
57.947144 72.248405 2.3102741
58.436962 71.542892 4.050683
61.853771 74.306877 6.102077
63.774841 75.241188 8.088603
58.771809 71.504128 4.0078883
61.907513 73.909096 6.0292401
63.286964 74.202522 7.9504609
58.361847 71.801498 2.2015772
58.805935 71.058189 3.9407012
62.67453 74.331673 6.0243917
63.213432 73.628761 7.8547173
58.322086 71.332344 2.1480341
59.605537 71.604584 3.9359827
63.65794 75.059425 6.0511065
64.292473 74.466293 7.9254365
58.574009 71.165916 2.1045678
59.518696 71.04184 3.8707607
64.745934 74.513832 7.9047065
59.30809 71.637337 2.0791717
59.714317 70.860405 3.8257203
64.018623 74.581573 5.9579992
65.352669 74.776939 7.9047503
71.51403 84.327316 4.5056281
62.769146 72.65876 5.7642775
64.804405 73.691765 7.7634091
59.674892 71.15905 1.9781996
63.854031 74.809608 3.9581609
64.263672 73.929893 5.8340654
65.531281 74.059288 7.7757425
60.199703 71.339478 1.9437088
65.306343 74.6661 5.8700528
65.802788 73.922379 7.7436957
60.130692 70.829437 1.8900058
63.728409 73.769737 3.8386731
65.315041 74.244011 5.8039784
65.868019 73.568512 7.6787643
60.429157 70.753853 1.8481947
63.440742 72.996849 3.7616441
72.411598 81.838844 6.363759
66.251884 73.570557 7.6511478
60.578117 70.489258 1.8015372
65.586334 73.664886 5.6941442
66.545837 73.456894 7.6216483
60.9617 70.483444 1.7527583
71.419785 81.171066 4.0938516
73.052963 81.550186 6.2707767
75.751915 83.11013 8.5877695
61.079948 70.170265 1.7051203
71.700722 80.972458 4.0433483
66.031059 73.240433 5.5981779
66.798088 72.83226 7.506351
61.440079 70.175591 1.6648831
72.551392 81.476006 4.026381
67.23851 74.164688 5.635294
66.847321 72.480362 7.441627
61.685452 70.00782 1.6207993
65.519005 73.107948 3.5737019
73.820824 80.928185 6.1263671
67.204033 72.420212 7.4089961
66.322502 73.563866 3.5582709
66.821259 72.815468 5.4775138
67.49575 72.302536 7.379323
74.007706 82.98394 1.8297067
66.978043 73.848793 3.5435348
67.144104 72.732323 5.4386888
62.76931 69.957237 1.4976605
66.612511 73.008324 3.4650638
67.351562 72.523468 5.3904281
66.815605 74.011139 1.5425487
66.705551 72.661354 3.410913
68.259933 73.065353 5.4075317
75.723289 83.367241 1.6941292
67.141983 71.441277 5.2545104
66.642517 72.900726 1.4355955
66.438126 71.484413 3.2808361
67.300804 71.15786 5.2021947
66.000008 71.768028 1.3701165
67.02327 71.68586 3.2522442
67.657944 71.124748 5.1762795
66.434174 71.79702 1.327736
67.572319 71.844162 3.2307749
69.437683 72.549545 5.2476993
66.640991 71.565086 1.2804558
67.70076 71.52597 3.1787937
77.761078 80.752586 5.8070102
67.1306 71.662865 1.2387924
68.317184 71.749184 3.1503232
78.561905 81.100769 5.7947068
69.277695 72.312881 3.1365862
78.699631 80.761292 5.7437515
46.823849 49.382961 0.78630489
72.335876 75.087502 3.2165508
78.751083 80.36586 5.6770558
47.511456 49.792175 0.76247799
70.647408 72.87117 3.0818775
79.381958 80.498871 5.6499429
47.762005 49.76754 0.7311911
79.062088 81.086723 3.3872082
72.727402 73.338943 5.1100087
48.081783 49.765614 0.70043474
71.095062 72.4384 2.9943194
85.393707 85.557846 5.9381084
47.900978 49.293827 0.66922498
72.616745 73.565094 3.0102568
85.701187 85.37352 5.8959136
47.813419 48.911949 0.633075
72.913544 73.428101 2.9638898
83.436691 82.64006 5.6666093
47.713413 48.492336 0.59692729
73.1147 73.166336 2.9130187
83.881157 82.556366 5.6225438
25.063112 25.305693 0.28463271
73.169868 72.787605 2.857029
82.824913 81.033211 5.4906654
25.178406 25.261892 0.27139494
82.299255 81.356895 3.1619122
85.509056 83.148399 5.6065559
25.207632 25.126905 0.25372595
82.396912 80.939629 3.1003659
86.88327 83.952034 5.6215024
25.120247 24.881741 0.23496297
82.374702 80.407288 3.0346529
86.235451 82.799873 5.50493
25.333027 24.944052 0.21935226
83.363716 80.890633 3.0178647
85.153984 83.376732 0.73146862
83.105827 80.131363 2.9438233
87.027267 82.556007 5.4199252
85.544083 83.278267 0.68702233
83.09507 79.661072 2.8910813
86.422989 81.511604 5.3217902
82.60508 79.939224 0.6055671
83.16243 79.252701 2.8300765
86.33107 80.956963 5.2448406
88.049896 81.293625 7.6408567
83.260887 80.080925 0.55331564
83.583626 79.181564 2.7812276
87.870575 80.645546 7.5584383
86.11895 82.323776 0.52565843
83.768707 78.870758 2.7351656
85.462189 79.177216 5.0730109
85.915436 79.139313 5.0303578
88.227547 80.012367 7.4449072
86.9813 79.598953 5.0324831
89.156425 80.342491 7.4673295
86.108681 79.577187 2.6415496
87.555374 79.632324 5.0061703
89.130112 79.824646 7.3869424
86.558769 79.532944 2.6032953
86.462814 78.200134 4.8861065
86.593117 79.060722 2.5405087
89.33062 79.067749 7.2732167
85.759842 79.026329 0.21224637
87.868164 79.76313 2.5259364
86.8209 79.482704 0.15802646
83.155045 75.004684 2.3393388
89.073433 79.08403 4.8441329
95.907127 83.879448 7.6714115
87.008736 79.180702 0.10154342
83.55706 74.918282 2.2906151
95.260323 84.090363 5.1080437
96.327759 83.759705 7.6243958
87.84079 79.446899 0.056970261
86.164169 76.781212 2.3120124
95.523087 83.802406 5.0595236
95.169632 82.256943 7.4767151
88.199562 79.265648 0.00023359591
86.089577 76.242188 2.2485039
95.111 82.925781 4.9755697
95.590836 82.110138 7.4294109
88.464935 78.984489 -0.045235515
86.462135 76.070831 2.2076077
89.148338 77.230194 4.6039639
95.624001 81.614326 7.3755522
86.601791 76.873932 -0.10019851
89.088951 77.92939 2.2241943
96.900299 83.461601 4.9325376
95.948563 81.415634 7.3219976
86.394653 76.20266 -0.1439649
89.23008 77.555954 2.1762083
96.071938 82.235855 4.8286757
96.364098 81.261177 7.2861929
89.706932 77.533813 2.1371632
95.327393 81.140198 4.7436018
96.904869 81.257439 7.2735553
86.924576 75.727074 -0.23245776
96.126129 82.538078 2.2366722
96.13446 81.288498 4.7223487
96.872177 80.709435 7.2033277
95.341675 81.357483 2.1522622
95.895485 80.598824 4.6385798
97.437195 80.690971 7.1667209
96.743637 83.245872 -0.36505091
95.77047 81.23288 2.1083632
96.350731 80.478485 4.6004872
98.225403 80.853027 7.1704125
31.322269 26.771755 -0.14883846
96.015915 80.951721 2.0602953
91.094536 75.642982 4.2922854
31.333138 26.604818 -0.16428557
96.555801 80.870094 2.0179753
91.192078 75.237862 4.2402186
87.554886 73.916328 -0.47281423
90.879868 75.641479 1.8363894
91.971855 75.393692 4.2223501
105.18376 88.25338 -0.61476815
90.742279 75.056892 1.7836915
98.808434 80.510147 4.477818
91.121231 76.005241 -0.57982337
91.143639 74.94857 1.7421296
90.711052 75.192299 -0.62107587
91.145897 74.497482 1.6927328
107.06734 85.681686 4.6613622
88.657242 72.578217 -0.70343107
106.81932 86.224785 1.8593378
86.619072 70.012215 -0.76981628
110.00953 87.691437 1.7981358
106.89278 84.671288 1.7030098
87.042648 69.476097 -0.85518497
107.19946 84.397018 1.6515833
98.507843 78.137062 -1.0108173
95.248741 74.513344 1.4149461
94.810173 74.759926 -1.0178429
108.55852 83.87719 1.5029856
122.41968 93.377693 1.5862858
53.641083 41.205326 -0.68375409
122.99593 93.240463 1.5310248
53.636013 40.956703 -0.7081095
105.16696 78.113731 3.8739018
118.97374 87.789345 4.3324032
43.987217 33.159538 -0.62432718
44.288635 33.174355 -0.6429683
118.20096 87.394096 1.2482221
119.66919 87.22644 4.2396607
105.86893 77.741257 1.0753719
106.55461 77.134125 3.7258861
126.66393 90.443008 7.5051465
118.5177 86.491333 1.1614209
127.00316 90.116631 7.4644699
119.82351 86.847389 1.1148663
126.08946 90.105736 4.3041058
106.66605 76.82589 0.93764424
126.66773 89.951614 4.2551374
126.16437 90.287247 1.0656431
126.50709 89.273148 4.1813259
39.749771 28.240654 0.30239391
114.55308 80.27729 3.7218432
132.29324 91.470253 7.4937458
39.785931 28.077425 0.2832996
127.94569 89.081314 4.0906639
39.810581 27.912317 0.2641966
117.17062 81.0448 3.6953866
39.759315 27.689178 0.24463193
39.834743 27.571999 0.23067819
123.15401 84.106781 3.7691073
123.93201 83.493332 6.7599688
39.654671 27.634922 -0.75435054
39.727135 27.323225 0.21100703
123.47908 83.791824 3.7141771
124.50166 83.357635 6.7204266
39.556797 27.381189 -0.76477247
40.102364 27.395071 0.19872384
123.13138 83.005295 3.6532092
124.57544 82.854721 6.6675138
25.851398 17.762842 -0.51833141
40.32954 27.363707 0.18080999
124.51145 83.364197 3.6433852
125.46786 82.877121 6.6579924
40.027874 26.979948 0.16039141
124.30999 82.678123 3.5726972
125.69905 82.494377 6.5994568
40.268887 26.980053 0.1472055
132.78619 86.619583 6.9143791
40.166885 26.724087 0.12793687
124.93912 82.0298 3.4763808
136.44431 88.392372 7.0439749
40.519791 26.780136 0.11497144
125.30798 81.723045 3.4509749
136.6745 87.966011 6.9954977
40.708824 26.720547 0.10132051
125.62575 81.365051 3.3952105
127.67391 81.601654 6.4618936
40.824146 26.617502 0.08274021
127.15433 81.819977 3.3721437
40.731941 26.374121 0.068347655
126.33935 80.731407 3.3004267
20.238579 13.169194 -0.46868747
122.09971 78.551704 0.18875554
127.60388 80.972298 3.2689447
142.30247 89.119888 7.001564
122.06023 77.964973 0.13271831
128.22391 80.798012 3.234719
129.0602 80.755859 3.2056484
140.38547 86.705894 6.7692423
29.631104 18.896132 -0.71030682
129.69398 81.743538 0.038782142
122.37362 76.082024 2.9777288
33.978207 21.524836 -0.82170492
122.34051 75.558258 2.9300339
33.51936 21.090134 -0.82072502
124.34223 77.307831 -0.048069932
128.11166 78.581627 3.0201659
41.185081 25.424387 -0.043189473
128.55882 78.331154 2.9819317
135.22725 81.332413 6.2910619
41.387074 25.363285 -0.06186185
135.18091 80.723305 6.231595
41.439621 25.210129 -0.075775534
127.64685 76.655495 2.8491232
41.557137 25.112812 -0.089791313
41.625381 24.980124 -0.10838409
127.77346 75.685371 2.7561972
28.229872 17.027546 -0.74967897
84.266823 50.237457 -0.2268725
128.05022 75.33622 2.7145958
28.48859 17.072262 -0.76464975
127.32542 75.437881 -0.37466082
127.72042 74.664948 2.660548
128.28165 75.440765 -0.41943467
127.63519 74.057991 2.611228
27.356495 16.158863 -0.75060892
128.62895 75.114967 -0.46263239
128.9425 74.305435 2.590811
27.486378 16.115105 -0.76488876
129.72223 75.204254 -0.52306807
128.73088 73.641968 2.5249124
23.391302 13.621373 -0.66050655
129.20567 74.409065 -0.56310952
27.484859 15.888528 -0.78044605
129.85106 74.2183 -0.60781413
132.54465 74.765434 2.5038011
27.433603 15.746834 -0.78678048
23.859007 13.589646 -0.69341135
133.47218 74.196304 2.4394019
88.348328 49.407265 -0.50511956
133.56601 73.729752 2.3785696
24.033043 13.494394 -0.7144683
76.509666 42.47691 -0.46453661
133.58614 73.207115 2.3310697
24.222549 13.503421 -0.72672325
60.295994 33.237831 -0.38951501
211.65854 113.76947 8.5067034
211.71434 114.297 3.57828
211.84285 112.95404 8.4296808
75.199821 40.820724 -0.52846181
211.73003 113.46802 3.5035133
21.687038 11.817307 -0.67298543
72.274582 38.945656 -0.53147143
211.75165 112.6722 3.4063306
211.91579 111.35445 8.2447701
211.79089 110.48687 8.1812
211.80188 111.11459 3.2819037
211.8694 110.29668 3.2087927
72.38768 37.868088 -0.62290555
211.88942 109.45651 3.1352038
211.85985 108.07984 7.9399767
20.712429 10.872102 -0.67206097
211.9581 108.66956 3.0627337
39.9436 20.572779 -0.37302381
211.89418 107.81718 3.0341828
211.82837 106.45642 7.8234792
39.661743 20.278648 -0.38280159
212.02139 106.24937 2.8901339
211.8987 104.86832 7.6886621
211.90611 105.4302 2.8162985
22.578138 11.406736 -0.75911999
212.03311 104.65788 2.7455404
211.57446 103.1469 7.5188966
212.07455 103.89568 2.6741157
211.93152 102.54261 7.4529495
212.02066 103.03885 2.6014731
212.04819 101.79748 7.4008727
22.692694 11.198523 -0.78122461
49.038971 23.937275 -0.55339402
212.21684 101.52942 2.5059271
212.16141 100.25485 7.2730823
22.090599 10.722636 -0.77275968
212.06873 100.61044 2.4102309
212.26772 99.933136 2.3641102
212.07335 98.626137 7.13691
212.33173 97.930519 7.0678301
212.14336 98.264374 2.2437158
212.07774 97.050087 7.00494
212.02126 96.263237 6.926538
22.512707 10.496691 -0.8124277
212.12 96.677353 2.125349
212.08502 95.484116 6.8517489
22.960838 10.62302 -0.83195698
212.30655 96.001419 2.0796645
212.0862 94.752014 6.7983565
26.051397 11.951892 -0.94825065
35.178123 15.960621 -0.48263991
111.66437 50.061478 1.047431
25.733067 11.710322 -0.94103074
212.31233 94.439407 1.9625647
212.14893 93.222908 6.6929288
212.38031 92.937286 1.8690212
212.14037 90.97139 6.4895697
20.264296 8.9182291 -0.76440346
212.19434 91.308853 1.7294706
212.14882 90.205551 6.4149594
212.46048 90.676041 1.6851442
21.562611 9.3281908 -0.82124197
21.476202 9.2127161 -0.82145208
212.5242 89.141884 1.5706947
22.006231 9.3581553 -0.84473437
117.49317 48.852867 0.8337881
212.31129 87.238083 6.2110372
212.33203 87.509453 1.4550605
117.63374 48.080204 0.77177578
212.26755 85.749054 6.1068416
22.964111 9.5150795 -0.89400792
35.340839 14.483647 -0.58354294
153.62039 62.22628 0.98095089
212.22913 84.97718 6.0543199
23.311825 9.5757256 -0.91338515
212.47717 85.337608 1.318961
212.44984 84.33387 5.9876556
33.426899 13.456076 -0.5689128
212.32596 83.508118 5.9328814
21.339344 8.602458 -0.84435046
27.958981 11.147293 -0.48420969
212.35159 83.707298 1.2272266
212.47975 82.816895 5.886291
212.40613 82.9534 1.1604189
212.35475 81.995285 5.8319068
21.28776 8.4208803 -0.8511886
152.64552 59.055279 0.79583853
212.40169 80.566093 5.7109494
111.39668 42.297825 0.53964877
21.086592 8.1108303 -0.85110712
112.10162 42.172592 0.51957738
212.30215 78.972343 5.6510081
21.311956 8.1227474 -0.86338854
98.24118 36.613327 0.44225305
20.630922 7.7904892 -0.83967763
112.11054 41.404865 0.48403963
212.41722 77.581116 5.5765915
25.546898 9.451498 -0.4818072
25.309061 9.2725582 -0.4821341
212.41437 76.083344 5.4557095
25.468872 9.2427301 -0.48972639
87.384132 31.350315 0.30922705
212.6118 75.441933 5.4333558
26.917606 9.6758251 -0.52140766
117.54704 41.768875 0.41296485
212.44711 74.65052 5.3800373
21.086288 7.6229906 -0.87490815
26.033432 9.3126135 -0.50730127
21.121382 7.5991216 -0.87801129
212.3716 73.915688 5.3293767
105.46545 36.940472 0.3359631
212.60329 73.630943 5.3107805
21.431488 7.6367507 -0.89403296
29.243811 10.310914 -0.57548171
111.40945 38.831291 0.34438086
212.51097 73.256912 5.2842598
29.094408 10.208071 -0.57825118
91.983315 31.900457 0.26244152
212.5554 72.884888 5.2392931
23.113552 8.154727 -0.96872163
29.832027 10.415811 -0.59513909
91.956543 31.733267 0.25288773
212.61742 72.564651 5.2382402
23.201363 8.1457891 -0.97417432
115.80991 39.768848 0.31113195
212.50175 72.161461 5.2111135
22.614817 7.9006863 -0.95181811
111.44341 38.08997 0.28729349
212.53476 71.831985 5.1878605
22.753464 7.912529 -0.95937848
112.02824 38.110107 0.27740079
212.49619 71.478645 5.162889
23.195086 8.0264835 -0.9794789
90.566559 30.652372 0.22076629
212.58975 71.170013 5.1411672
23.67173 8.1459665 -1.0010384
90.815437 30.571796 0.21210554
212.64429 70.803108 5.1181874
24.676588 8.4499254 -1.0446988
105.58769 35.366131 0.23865539
212.4684 70.382706 5.0898581
24.274902 8.2654791 -1.0298635
91.186867 30.376106 0.1943766
212.5833 70.03653 5.0684023
24.888336 8.4320669 -1.0573953
91.067268 30.181175 0.1847955
212.48195 69.642036 5.0419688
24.56032 8.2788649 -1.0456612
91.811485 30.271715 0.17708007
212.47778 69.302483 5.0180559
21.746792 7.2875915 -0.92969447
92.962936 30.483639 0.17003863
212.48816 68.900444 4.9940524
24.823139 8.280282 -1.0605698
92.626442 30.225842 0.15993306
212.55373 68.584091 4.9932671
24.831766 8.2382555 -1.0628763
213.15889 68.418579 4.9835839
25.044401 8.2636423 -1.0712497
214.39214 68.451958 5.0100532
22.313623 7.3236208 -0.95826584
93.105438 29.89909 0.14183451
215.50737 68.444016 5.0120544
22.766365 7.4337916 -0.97914463
216.73271 68.467461 5.0163989
22.772905 7.3973327 -0.98123717
218.0188 68.529182 5.0220623
219.10696 68.502182 5.0227666
99.761436 31.373966 0.11280684
220.5058 68.568489 5.0303769
96.091187 30.077728 0.098307855
221.55316 68.568268 5.0300026
222.7305 68.535156 5.0319276
23.443615 7.4149289 -1.0189139
224.13121 68.59008 5.0388155
23.51347 7.3924851 -1.0237126
92.939758 28.592915 0.066379018
225.52481 68.614876 5.0451217
23.647938 7.397501 -1.031381
95.863686 29.341944 0.059371602
226.71687 68.622337 5.0470023
24.117058 7.5038815 -1.0533987
25.459824 7.8794217 -1.1130438
96.539062 29.235292 0.040507477
235.02762 70.376396 5.2044501
25.645164 7.8884268 -1.1229974
235.05144 69.966331 5.1789188
24.868975 7.6076951 -1.0915655
28.385376 8.5926037 -0.63081908
94.801376 28.381855 0.020439178
235.0679 69.578918 5.1534052
28.168724 8.479845 -0.62868994
94.648331 28.177935 0.010895423
235.11546 69.225441 5.1287503
27.83687 8.3333302 -0.62401843
93.838081 27.780046 0.0012596268
235.14987 68.843811 5.1036873
25.578718 7.6939812 -1.1257377
28.213713 8.3991709 -0.63192362
94.221123 27.736391 0.010741545
236.30151 68.787682 5.1264672
25.198685 7.5348144 -1.1112802
28.476547 8.427042 -0.64017683
95.177956 27.849705 0.0015098575
237.84956 68.818108 5.133975
25.271637 7.5171185 -1.1165029
28.287186 8.3267612 -0.63861239
95.05468 27.665321 -0.00801137
239.0759 68.825386 5.1346736
24.942945 7.377646 -1.1042268
27.426779 8.027564 -0.62224412
240.61382 68.868713 5.1415353
24.821352 7.2951255 -1.1008674
27.810106 8.0878515 -0.63313806
242.24078 68.907524 5.1498551
25.398174 7.4225969 -1.1280569
28.547483 8.2550993 -0.65198016
25.213568 7.3240438 -1.1194706
22.686602 6.4433208 -0.022016615
25.354244 7.3228426 -1.1276524
22.706081 6.4112782 -0.024277799
24.357117 6.9940901 -1.0859998
22.571486 6.3358974 -0.02647954
24.541973 7.001462 -1.0960176
22.590784 6.3763442 -0.52581489
22.576965 6.2978048 -0.028722027
25.230167 7.1562414 -1.1282604
22.590864 6.3390107 -0.52784598
90.940506 25.242798 -0.071774155
257.43924 70.677094 5.3575792
22.487476 6.3355227 -1.0094005
22.596909 6.2987108 -0.52998394
22.486341 6.3026743 -1.0089768
22.59511 6.2679038 -0.52976632
22.568668 6.286171 -1.0143974
79.189072 21.587946 -0.080431551
22.59865 6.2525754 -1.0174918
25.65193 7.0561748 -1.154514
257.62308 68.607338 5.2480025
25.121668 6.8739233 -1.1331236
25.326195 6.8830457 -1.1441864
29.034912 7.8086133 -0.68534762
257.4014 67.729744 5.1882825
25.331902 6.8429294 -1.1439722
29.355906 7.8468046 -0.69243401
257.55817 67.348778 5.1893578
25.034809 6.7162933 -1.132745
29.387917 7.8041172 -0.6957894
257.57568 66.905067 5.1875
25.258629 6.7297549 -1.1446947
29.473776 7.7725635 -0.70037705
257.35724 66.374496 5.1552744
24.843904 6.578371 -1.1282209
24.732479 6.5108232 -1.1252789
30.17379 7.8615952 -0.72198606
49.880856 12.848239 -0.09153372
257.41724 65.600998 5.101716
25.051704 6.5539293 -1.1391112
29.91 7.7438641 -0.71556544
49.89444 12.775293 -0.091526531
257.49194 65.225868 5.1013303
24.873089 6.4664378 -1.1331432
30.062162 7.7341552 -0.72180533
50.558414 12.86284 -0.097481728
257.39825 64.782158 5.0720325
24.937309 6.4372787 -1.1379924
30.249001 7.729775 -0.72886825
51.520958 13.013295 -0.10406154
257.47974 64.356659 5.0461111
24.869638 6.3791571 -1.1369778
30.1784 7.6624618 -0.72991931
257.44275 63.928036 5.0180111
24.854588 6.3372502 -1.1358899
30.363859 7.6631737 -0.73402619
257.47009 63.568092 5.0168719
24.889593 6.3005099 -1.1394365
30.386669 7.6132298 -0.73725498
54.463058 13.490662 -0.11965539
257.47305 63.09766 4.9893713
24.879747 6.257463 -1.1410211
54.526089 13.423127 -0.12511827
24.932827 6.2302217 -1.1454489
54.978851 13.445278 -0.13139513
24.899908 6.1764011 -1.1434779
24.801968 6.1142693 -1.1411061
54.97123 13.264897 -0.13671324
25.210217 6.168952 -1.161589
25.156553 6.1149635 -1.1587296
32.891296 7.9139619 -0.80761158
55.884846 13.292946 -0.14410555
24.912748 6.0177388 -1.1497461
32.936604 7.8748217 -0.8116709
55.508507 13.124722 -0.14867824
25.247839 6.0552907 -1.167002
33.104191 7.8613057 -0.81867278
55.101467 12.933682 -0.15308939
25.247957 6.0118642 -1.1665601
54.56736 12.714491 -0.15172319
273.37387 63.035259 5.1198902
24.723488 5.8418145 -1.1446921
25.238031 5.9227242 -1.1701998
32.226765 7.4866228 -0.80293345
54.67065 12.556436 -0.15725414
25.116762 5.848567 -1.1666789
32.599991 7.5141859 -0.81489915
54.355858 12.385432 -0.16173622
25.075928 5.8036137 -1.1644553
33.38472 7.6480918 -0.83379984
54.556549 12.359715 -0.16222805
25.060354 5.7595615 -1.1658059
33.819626 7.696682 -0.8474642
54.34129 12.223359 -0.16694406
25.308214 5.7732301 -1.1792108
54.688068 12.207842 -0.17321275
25.438824 5.7620645 -1.1847936
28.620232 6.4172721 -0.72244799
28.527096 6.3217945 -0.098658025
28.429668 6.2316532 0.50382996
25.281841 5.685751 -1.1796826
28.639732 6.375567 -0.72549784
28.258511 6.148725 0.49774352
25.470787 5.687304 -1.1904621
28.620131 6.3251801 -0.72758335
28.438879 6.2108397 -0.10392819
28.262484 6.1070762 0.49488506
25.00701 5.5408988 -1.168708
34.459118 7.5615973 -0.87180567
55.009975 11.931559 -0.18470941
24.986103 5.4961081 -1.1698123
35.354568 7.7014809 -0.89713478
55.033085 11.848255 -0.19011858
24.995443 5.4530091 -1.1722623
35.382381 7.6436601 -0.90096629
54.848068 11.709446 -0.19484849
25.091646 5.4337573 -1.1763164
55.290379 11.720856 -0.19622476
25.114494 5.3984365 -1.1794521
